3.093322528237956 -3.928276433284137 6.037579674090104
3.912317394220702 3.113482392254392 2.422997345293978
2.3586226579712353 -4.408729880283516 5.708610965376216
-4.4050865618603785 2.3654201281203964 0.46125071759711034
4.99813615533046 -0.13650997318307412 6.353287772762702
4.063477013906268 -2.9134437625352234 3.685539401983502
-0.9388139251395322 4.911072022885035 4.612673498890744
4.243734067598964 -2.6439971943063694 6.251860065910656
-0.6273503667253949 -4.960487024211384 2.1543637836531317
-4.323115921700678 -2.512104442004373 2.4202481450675224
1.2113824535314843 -4.851036234793144 4.016577551513905
-3.8693992973299713 3.16666213509151 6.8281124870852805
3.126085818510757 -3.9022541505270936 0.8863040400555846
0.1273506117753255 4.998377919053385 3.7721498620556346
-2.910359529358057 4.065686585298324 6.361329123962256
4.926386370070872 0.8548200587140802 5.661354889653533
2.9770688327151285 4.017096111032966 6.527992311631655
-1.501878061434808 -4.769104977727039 4.677140114449925
4.956165710043284 0.6606220209705012 4.393651258062779
1.9779106742075225 4.592153020627246 1.0295780519136395
-3.933795620752558 -3.086300700539077 5.435710669988494
3.645637128073682 -3.4218898185667337 7.461920279546008
-4.994716460550307 0.2297987787343879 5.501434566019682
4.540341217379154 2.094111178941551 2.8545881616331705
3.274319836595569 3.778733863038884 4.654586228799253
4.122492224528385 -2.8293210950160836 0.8979386950218355
-3.8771634756152142 -3.157151149906408 6.060604762592559
-1.6329909622684793 -4.72581638631353 1.861522158453254
-3.8265377852216482 3.218323877155779 4.738067356314833
-4.815038315277081 1.3473700391554102 0.2342655253180146
4.9998084048520415 -0.043771163691182446 0.16965760240941918
-4.942905875977827 -0.7534464156287932 4.375734384282196
-4.833477748990649 -1.2796455954725467 6.795677891100032
1.1801844014004073 4.858720487812729 2.6203352835968063
1.951130936965828 -4.603595124119285 4.978521432866297
4.2736666790876745 -2.5953368020462637 1.6177425886523311
1.292313678685575 -4.830106143334963 6.744026121114603
4.186511369960997 2.7337012545608004 2.328657698445083
-4.631844645488462 1.8830866098137566 3.4992513052633543
4.504420512282172 -2.170298562071959 3.3394051844682586
4.633629493579652 1.878690425862861 7.824353794078889
0.18355528959862852 -4.9966296096129 5.403543256719782
2.368155606088905 4.403616584734608 2.8635900189673507
-4.948602850543938 -0.7150733022483867 1.9394366953007456
4.580460538933567 -2.0048394577303243 4.9020263424001715
4.364778315099229 2.4389977982850946 6.575189307185155
4.310061531638118 -2.5344367408742485 1.5856220677512907
-3.3713275743850737 3.6924450417292407 6.2877874191506615
-4.410163774122263 -2.355940467291072 0.021523191067927883
-4.920650477368469 -0.8872422891034076 6.284905142924622
-1.2896104076588364 -4.83082860350665 2.7103108258597564
-4.413397922430081 2.3498763325523826 5.3528181377600905
-1.2865155419759042 -4.831653729340964 5.901008204194967
4.783068467167578 1.456796498618528 7.59601291560135
4.982287493203712 0.42048939946908453 7.955394067482973
2.255104797374381 4.462566789736491 3.9864237213366023
-3.2400618735192466 3.808149032767356 5.8503073116395425
-4.518742992921109 -2.1403181454929485 3.9345059524853703
4.786464296150681 -1.4456000628371488 4.005568358980849
-4.291198076942776 -2.566246103639052 0.8668429283973698
1.6974450085877144 -4.703050121232034 3.8420130813355433
3.048977341072499 -3.962794111940018 3.1441613899808267
4.992684667643309 0.2703697643587649 3.9899639902430666
-1.4381329323465175 4.788713153750223 2.0310581178988194
4.97883748446929 0.45954031732103084 2.7709935273995008
-4.996890422798929 0.17631251385067132 4.096618685566107
-4.594044092239201 1.97351434718932 1.9105698160348243
0.6172288081226972 -4.961756604109419 7.356614902996157
-4.402800238867085 2.3696729851673486 7.8030223375031795
3.2740196335917244 3.7789939717940686 4.6311394865011835
4.992243769995557 0.2783920633576815 6.58981130011765
-1.1901701532097326 4.856284073899376 6.966270287482971
3.7053441597536416 3.3571453137717433 0.5246513828454171
3.238517349507088 -3.809462609993907 1.575817899816661
4.7210652013427215 1.6466764602285453 2.7235652741319347
-1.4209773082337849 4.793831816979468 3.4228679951853485
-0.11576904263934122 4.998659573202237 4.4171845242359336
3.8596970485096493 -3.1784805636854063 4.370096274572753
4.060614035891924 -2.9174327158509583 7.252113150654855
1.6194810536753577 4.730463097497596 1.1713492702631054
-2.754074694971615 -4.173137018421155 2.3617826361406538
-3.1940643677672558 3.846810732874644 5.055168598624202
-2.9464028785265715 4.039642320479665 0.4680980018087606
-4.690280914803122 -1.7324159258773841 1.6470043788541746
-3.275849261141971 3.777408055568739 0.3893012735524497
-4.763435486446353 -1.5197639180029259 7.289057552562015
2.264597928622315 -4.457756859865679 0.21175301462825846
-2.644501564068153 4.243419785696566 7.865488941360408
-2.797230502841593 4.144333663446099 4.574854754066905
2.651786288323187 -4.2388712508238715 7.179442949824547
-0.8671282880474318 4.924234816909926 3.7992011113720165
-3.8238517936613574 -3.2215147772612838 4.4908395658174936
4.946570167172621 -0.7290017703941681 5.56754246905387
-2.988790837895629 -4.008382382871068 2.82875833933048
4.740871158993861 1.588754434712993 4.22160433889726
3.3640287380432405 -3.6990959232789846 4.788067482530254
-3.7005326923902278 -3.362448184366732 1.633946473400857
3.5810766615029466 -3.489396788047887 6.5690657399049845
-3.745175237694867 3.3126518740968236 1.8426339340229285
-4.099340668196183 -2.862761968112766 2.8550419703178864
